0.042667906	0.882716682	0.752427655
0.890354788	0.7773961	0.998081635
0.279058707	0.459972494	-0.291256271
-0.238435892	0.648874967	0.216083014
0.644383178	0.951911471	0.682075059
-0.981750429	0.668183705	0.093498842
0.938105323	0.395861125	-0.103679613
-0.786189609	0.472586823	-0.982393891
0.505952306	-0.405897364	-0.084671675
0.476051972	0.026077505	0.765451042
0.940348954	0.122875073	0.431181389
-0.985713023	-0.08129951	0.035606505
-0.246855274	-0.742206509	-0.459940462
-0.771650904	0.866623062	-0.082691792
0.164366561	-0.409841786	0.761629161
0.765755803	-0.262920045	-0.773437041
-0.386064735	-0.334449186	-0.25967735
0.3038158	-0.312033304	0.94891407
0.948016758	0.798952076	0.591286464
-0.61185957	-0.684439322	0.671589811
-0.616732345	0.037432346	0.720217787
-0.603979353	-0.920317488	-0.222559777
-0.086272694	-0.444947657	-0.793659425
0.856079478	-0.644654776	-0.596400926
0.888152875	0.51858898	0.072786862
0.410220156	0.898389577	-0.370040552
0.406536796	0.391196875	0.52442023
-0.092043062	0.20160816	0.928407432
-0.576302569	0.794843819	-0.399912814
-0.435862398	-0.011924871	0.626379042
-0.955270908	0.069782623	0.785200375
0.896548993	-0.891439481	-0.847468401
0.197174071	0.962549099	-0.60079061
-0.805337199	-0.649643232	-0.395759586
0.607165409	0.993790238	-0.31035698
0.213582492	-0.664201524	0.266934045
0.071730241	-0.578784705	0.155399742
0.56800799	0.800953172	0.31697382
-0.950139476	-0.997629797	-0.766577454
0.422880093	-0.389350775	0.415615408
0.889763651	-0.603928088	0.488736799
-0.667780445	0.02547374	0.019928675
0.002095152	-0.612844067	-0.714415316
-0.574133253	0.377376796	-0.699425622
-0.177172303	0.3857237	-0.207455532
0.877647475	0.109913486	0.655252523
0.919309869	-0.04822256	-0.380659867
0.79163853	0.328400573	-0.834897559
-0.685035762	-0.021274189	-0.204875108
-0.772666301	-0.221187011	0.750683944
0.660957698	-0.46786954	-0.401948063
-0.357604624	-0.554476904	0.949515105
0.134042461	-0.70834556	-0.822118121
-0.347069314	-0.095312415	-0.818154113
-0.89614736	0.170251905	0.982352172
0.535192773	-0.979833478	0.291644682
-0.559779597	-0.69594619	-0.755743959
-0.927940038	0.605531369	-0.900204706
-0.469188495	-0.252922272	-0.438961905
0.188514275	-0.907772101	-0.788142622
0.476447454	0.253052379	-0.042583132
0.091313476	-0.606472237	0.7262833
-0.811659389	-0.72429776	0.443453128
-0.26277919	-0.085248811	0.725526702
0.481722781	-0.7207269	-0.932236384
0.545057045	0.902987856	-0.652050416
0.762961339	0.564862098	-0.341233396
0.011042698	0.341760328	-0.198258976
0.740093691	0.648535346	-0.530134243
-0.588469586	-0.377879121	-0.291023564
-0.948672948	-0.003551037	-0.889347876
-0.525201789	-0.46114911	-0.489920769
-0.355693684	-0.854784776	0.562816101
-0.323988828	-0.501907052	0.597271651
0.593359543	0.76289275	0.556992063
0.037357217	0.751796213	-0.370190387
-0.546990543	0.193348937	0.026306422
0.859939543	0.829573795	-0.516071488
0.863540101	-0.239565062	0.684429776
0.384991568	-0.379608973	0.247695381
0.226465874	-0.318439499	0.580664039
-0.055869101	0.326772685	0.176156269
-0.478298291	-0.47618321	0.019769471
-0.943033817	-0.512081246	0.804365642
-0.696418533	0.81552299	0.135195885
0.475487847	0.337531652	0.886260673
0.192100479	-0.355250473	-0.825026428
0.025833959	-0.051763213	0.624153087
-0.574587636	-0.283510757	0.860146723
0.34957733	-0.550681822	-0.102070392
-0.3186418	-0.529116583	-0.544300164
0.194543867	0.770844809	0.446095848
-0.225925012	-0.185592533	-0.941391221
0.32509134	-0.061568513	-0.589974014
0.628666867	-0.369395181	-0.605157666
-0.629949831	-0.642107232	0.14127257
-0.274006611	0.043901062	-0.232230727
-0.835177571	-0.925620746	0.667943785
0.234502006	0.466134314	-0.525865545
0.697189556	-0.834959784	0.926026622
-0.195527303	-0.299814952	0.058810317
0.62718542	0.843930775	-0.447853842
0.278905408	-0.369975782	-0.412145592
0.267415722	0.267722534	-0.658437095
0.737922184	0.668685252	-0.885879545
-0.79446057	0.618301685	0.180629108
-0.444348247	-0.345929396	0.524649614
-0.540272022	-0.675311001	0.858152698
-0.653172091	-0.500403543	-0.149842564
-0.677034065	-0.800242536	-0.527587124
-0.310584737	0.597517792	0.430411639
0.02503917	0.091868691	-0.210341565
0.996101045	-0.780936555	0.586478106
0.829232972	0.877960721	-0.314028461
-0.157226113	0.544993406	0.882347576
-0.691139599	-0.138591455	-0.705821846
0.48615984	-0.617098976	-0.381993742
0.840203645	-0.814202125	-0.512573318
-0.233283035	-0.843795011	-0.820211777
-0.873219608	0.426806413	-0.211881136
-0.25003836	0.912158249	-0.289862575
-0.83537768	-0.850561261	-0.859439622
0.564019728	0.406954692	0.073281833
0.791608125	0.038682713	-0.018819686
-0.56545281	0.173008892	-0.721202779
-0.182557514	-0.362729693	0.256048012
-0.632488748	-0.602517068	-0.592957415
-0.459750393	0.937168414	-0.927336174
-0.13108784	0.506788594	0.09328756
0.032705609	-0.272310842	-0.678367304
0.68134427	0.766940197	0.203548657
-0.501160353	0.9127409	-0.564684615
0.334966855	-0.781184748	-0.469484912
0.329167707	-0.707834326	0.908294649
-0.707509767	-0.126211741	0.394195195
0.973083491	-0.409192102	0.961793208
-0.403723594	-0.889299793	-0.470189609
-0.448074599	-0.820864431	-0.119097456
0.995386873	0.610358323	0.469265075
0.640051618	-0.090787039	0.090817656
-0.734333646	0.051275646	-0.77561562
-0.062230416	-0.637724549	-0.92116106
0.039063233	0.853746045	0.957310188
0.551896339	-0.826488006	0.524745143
-0.387755343	-0.63310626	-0.136902897
0.39029426	-0.027971942	-0.399394651
0.438082554	-0.733953932	0.709864413
0.023373296	-0.631905461	-0.040549177
0.440184271	0.225828281	-0.769605968
0.206102706	-0.128456222	0.529612968
-0.327618943	-0.909046297	0.361367038
0.999534728	-0.486954834	0.067899182
-0.074678216	-0.450724955	0.431369832
-0.202055331	-0.988854673	0.563797628
-0.003595971	0.898697166	-0.696555499
-0.419611165	0.968374905	0.03805101
-0.820507345	-0.14760268	-0.839847973
-0.329337623	0.072706535	-0.425119058
-0.392293093	0.10236695	-0.827622903
0.846006824	-0.424352348	0.793957114
-0.284751153	0.446432498	-0.832471495
-0.400088105	0.219874914	0.970653892
0.387782637	-0.925518924	-0.898868285
-0.802784564	0.615992151	-0.108427089
0.136159168	-0.112867401	0.144530891
-0.19687525	-0.671614983	-0.260114833
-0.356360339	0.796269335	-0.420983083
0.990401103	0.281144231	-0.293777511
-0.161258498	-0.204631724	-0.746833778
0.825029256	-0.583580548	0.132993477
0.606355495	0.174009723	0.873554774
-0.975341265	-0.686460782	0.072525023
-0.621002811	-0.32688872	0.642437236
0.832030971	-0.707531687	-0.970498329
0.71035797	-0.888019233	0.001445814
-0.950345949	0.110384981	-0.282192296
0.825546854	-0.3023649	-0.993399919
-0.136652796	0.217016104	0.73336916
-0.130468985	-0.80911524	0.054080376
-0.021524411	0.684814368	-0.709228022
-0.063014464	-0.017469193	0.082182255
-0.836299033	-0.629647616	-0.579240573
0.576324701	0.430906397	-0.652056992
-0.752498365	-0.838942884	-0.337876363
-0.122398063	0.692064629	0.016930404
-0.471831922	-0.550936096	-0.319541374
-0.310684297	0.80756881	0.100051477
0.833091623	-0.691166681	-0.738472308
0.216288709	0.745916668	0.899644682
0.257717973	0.538848344	0.030411964
-0.882402022	0.13078619	0.279814669
-0.191491594	0.787998374	-0.700255405
0.070289975	-0.095018049	-0.29777546
-0.069329753	0.003693243	0.906026976
0.261572593	-0.80853471	-0.98029875
0.089399707	0.749687638	-0.873662253
0.207184783	-0.875539606	0.283591649
-0.60387152	-0.696884442	-0.2318327
-0.349788117	-0.355747282	0.986578515
0.676183139	0.204972759	-0.002561956
-0.410790645	0.425660839	0.67427934
0.175248069	-0.909312167	0.496058265
-0.544037688	-0.904173664	0.336681292
-0.981316269	-0.558838728	-0.282769856
-0.326602132	-0.153003306	-0.622793544
-0.757699093	-0.001107349	-0.994104191
-0.550174194	-0.507343386	0.949998055
0.636464919	0.948737294	0.466592374
0.968278739	0.288264314	-0.482613092
-0.264069154	0.64197359	-0.543923209
-0.295552051	-0.762426064	0.19999102
0.30213396	-0.344612491	-0.207565133
0.381039863	-0.438567484	0.074007389
-0.317382878	-0.162619809	0.534624335
-0.200219908	0.432621471	0.714617547
-0.595428167	0.916634906	-0.765323764
0.300186392	0.163708179	0.096780074
0.320962577	-0.696370662	-0.270213438
0.753847514	0.533857484	0.838836112
0.789455002	-0.41194923	0.456723506
-0.807813467	-0.381583199	-0.302209479
-0.410023511	0.474549382	-0.476827379
0.989312875	-0.67932988	-0.452737719
0.459223957	-0.411532677	-0.486166911
0.890516714	0.438893528	0.4471367
-0.142248511	-0.508485496	0.083597377
-0.124228959	-0.175994555	0.578864466
-0.931717372	0.601714437	-0.350666973
0.141297106	-0.459631671	-0.134766674
-0.316412311	0.620428715	0.665302622
-0.732697414	0.756472273	-0.812831763
0.125119058	0.356697838	0.700218494
-0.336356096	0.470369637	0.102269653
0.567822518	0.77887182	-0.064487666
-0.85495448	-0.462671711	0.102458166
-0.970716824	0.497056692	0.256843218
0.28457954	0.403046828	0.922013117
-0.955729817	0.779423359	-0.062590436
-0.733254609	-0.763708745	-0.706169174
-0.463597872	-0.055154993	-0.287804274
0.511096113	-0.950089979	-0.507644045
0.634773745	-0.252739486	-0.226690378
-0.809802542	-0.719666955	-0.173477417
0.731626156	-0.633985186	0.826784281
0.602137849	0.308855522	0.540105712
0.607379095	-0.478639467	0.761216214
0.138263996	0.092610228	0.951482968
0.694874224	-0.800772861	-0.840712051
0.087017978	-0.969272216	-0.163280383
-0.707942513	-0.529603776	0.555250119
-0.891766869	0.782499956	0.978371193
0.856674857	0.37326161	0.225104563
-0.988314448	0.275734201	0.577908819
-0.154053421	-0.335471866	0.904565398
0.669129735	-0.4478974	-0.210178154
-0.200114692	0.190100444	-0.544482243
-0.536550266	-0.865070975	0.834575121
0.189223568	0.58336375	-0.992499779
-0.564575156	0.766458661	0.31331245
-0.566120455	0.368600894	0.63965946
0.445767116	0.446062967	-0.431273454
-0.308958405	-0.331836448	-0.783061394
0.212207322	0.064067217	-0.076579399
0.576329863	-0.114942389	0.93545228
-0.829175697	-0.140241546	-0.069891771
0.361949478	-0.979016776	0.154066715
0.433680214	-0.930046492	-0.043978497
0.04689297	0.306075059	0.49973512
-0.329960721	-0.473926143	0.033604646
-0.714276724	0.291473422	0.955145751
0.104182715	-0.306287543	-0.328388057
0.674192084	-0.68132836	-0.462703247
-0.127482543	-0.208050911	-0.556033517
-0.978993442	0.033045223	0.223292192
-0.507824285	0.736175644	-0.882160194
-0.143425834	0.901932154	0.817704396
-0.285819371	0.816671322	0.636970638
0.640051336	-0.264179604	-0.955316163
-0.392585975	0.067377355	0.079652177
0.122997543	0.362464176	-0.384773851
0.53162658	-0.610958935	-0.185282611
0.061720115	-0.846129152	-0.98712369
-0.789961993	-0.618298503	-0.006825067
0.660328166	-0.807838215	-0.622622991
0.834205307	-0.715809719	0.317228022
-0.720257385	-0.368378511	0.918228712
0.966658771	-0.157783238	-0.56642274
0.313956973	0.61742198	-0.409750287
0.788261415	0.158838374	-0.507336881
0.163127013	-0.537515459	-0.280257738
0.432142976	-0.895617034	-0.29206272
0.78062331	0.325354664	-0.61972918
0.323659319	0.112111227	0.657832523
-0.733417243	0.435260726	0.802343333
0.305328501	0.934248794	-0.17436695
0.477791087	-0.072243031	-0.891010271
-0.268947445	-0.552300164	-0.345283459
-0.313198112	0.246315615	-0.04652684
-0.954542594	0.906647811	-0.222041047
-0.579205431	-0.038681186	-0.898250986
-0.341055419	0.304457707	0.338606233
-0.163161095	0.241139281	0.537827715
0.98772614	0.299013948	0.353909456
0.116037052	-0.74957733	-0.224270183
0.970604395	0.929499903	0.311241846
-0.547552688	-0.364470364	-0.941616079
0.563612438	0.033157326	-0.07739412
-0.861094946	0.430926055	0.450566918
-0.372221535	0.474460358	-0.264427513
-0.116054588	0.730479238	0.963416712
-0.673649525	0.962888508	0.285890647
0.052441422	0.554364829	0.112442999
-0.510907458	0.373460164	0.859460128
-0.079782425	-0.185432304	0.777669748
0.531690078	-0.36111722	0.898155527
-0.128285952	-0.748149693	-0.630190246
-0.499736605	0.42800403	0.435831781
-0.00884087	-0.970708338	0.019631685
-0.888471778	0.164526295	-0.808017112
0.350048825	0.945372907	-0.753138998
0.637374109	-0.825818381	0.727981757
0.178425569	-0.483192703	0.043809429
-0.344449646	0.046253361	-0.62283293
0.114109353	0.824017395	-0.176073539
0.345521469	0.204402906	-0.121477063
-0.635658541	-0.485989641	0.759746858
-0.57774958	0.120585338	0.921430465
-0.927145256	-0.570714561	0.588282416
-0.123934098	0.715136559	0.753507398
0.517249943	0.55107391	0.579838357
0.304668352	0.278669589	-0.457591684
0.84065124	0.750423023	0.769482932
-0.825882727	-0.983768495	-0.481000902
0.370462621	0.381606463	0.114190882
-0.330558999	-0.87587053	0.797423324
0.626383638	0.429894465	-0.325899698
0.622461702	-0.255930987	-0.427732787
0.904319327	-0.625479963	0.702492461
-0.749512984	-0.606721491	0.895682794
-0.479649914	0.314215277	-0.149642525
-0.84281002	0.062520052	-0.094667468
-0.206381304	0.045777702	-0.925905001
0.657850978	0.123350952	0.651841892
-0.396983224	-0.272500345	-0.056431275
0.781087168	0.139093921	-0.739835599
-0.03581375	-0.831424278	-0.79260938
-0.988243738	-0.714598455	-0.860978981
-0.635474058	0.199824922	0.544140501
-0.355575032	0.646544291	-0.746216479
-0.437973095	0.990795665	0.668344641
0.345275964	-0.745402606	-0.769827998
-0.605704679	0.7126313	-0.05634894
-0.446165285	-0.200955011	-0.841924729
-0.892125369	0.577613605	0.869001043
-0.03888143	0.948993972	-0.31536672
0.816702434	-0.465326027	-0.699245594
0.501374958	0.080683837	0.967684067
0.678080433	-0.293379271	-0.028505224
0.83665824	0.141856282	-0.313839453
-0.257870989	-0.111577578	0.07064984
-0.494961834	0.786325373	0.643298273
0.75727554	0.938772826	0.278428468
0.082699075	-0.078983896	-0.082355495
0.565290672	0.11549718	-0.446037017
-0.063675059	0.853487246	-0.114909862
0.76759073	0.789916032	0.423229401
0.689330481	0.271058283	0.195584861
0.284385582	-0.123957998	0.000528047
-0.204855451	-0.707030635	0.898694338
-0.35706645	0.515646237	0.849020488
-0.978069261	-0.193923456	-0.988421927
0.262245258	-0.150943591	-0.20068504
-0.870671216	-0.967339709	0.266141385
-0.409880111	-0.1127269	0.226852446
-0.236316498	-0.975680673	0.176441514
0.584624724	-0.43227188	0.534334211
0.859519525	-0.930272764	0.965939649
-0.036980587	-0.072200392	-0.880191624
0.923285899	-0.076757659	0.364730577
0.968401775	0.911602468	0.878711662
0.914123283	0.005779166	0.948025951
-0.962395658	0.723947038	0.277324683
-0.46147671	-0.684334812	-0.510623274
0.223373579	-0.291829235	0.368074882
0.732992275	-0.471706624	0.961305309
0.957680001	0.183519737	-0.656797893
0.388908201	0.687676077	-0.947195814
0.001096692	0.440241475	0.319872934
-0.44696834	-0.182356202	0.964685252
-0.752236737	0.913577401	-0.30336573
0.942551574	-0.066313727	0.567768495
0.35788796	-0.124106065	0.712443211
-0.17430225	-0.946019198	-0.442185862
0.756314589	-0.94069402	-0.188724708
-0.244783256	-0.108300589	0.930832081
0.277035055	-0.567543283	0.793201223
0.178656437	0.93831816	-0.355449451
0.359487988	0.410455338	0.719283707
0.798553271	0.267943503	0.544185685
-0.359277626	-0.686242076	0.753596493
-0.285737559	0.423803355	0.509543743
0.583553749	-0.056015337	-0.284508264
-0.082720854	0.855856034	0.577814916
0.597902385	0.515316728	-0.867480069
-0.985943538	0.089062702	-0.470692641
-0.658452934	0.721357634	0.509800138
0.582703459	0.937334583	0.103516767
0.507905531	-0.889487882	-0.740650179
-0.558854355	0.916723294	0.476605137
-0.611101628	-0.903008361	-0.846865244
0.306883205	0.649219396	-0.623419753
0.695427602	-0.266482349	0.829987449
0.378593717	-0.435385317	0.618133395
-0.0658868	0.344844703	-0.468259718
0.333544238	0.098679277	-0.906348707
0.720214959	-0.080844562	0.652821864
-0.11836695	-0.552281709	0.628010253
-0.130910428	0.363995828	-0.67872538
-0.532673797	-0.169811805	0.496376956
0.531101487	0.11279068	0.110464601
-0.770826424	0.074453499	-0.370702328
0.921943114	0.467303364	-0.301800138
-0.155176369	0.182558574	-0.345836412
0.064616748	0.338249006	-0.759757464
-0.365572522	0.93116159	-0.727880641
-0.119347487	-0.998438721	-0.993000407
-0.595169722	0.613718892	-0.726711803
0.233482155	0.463456098	-0.729772844
0.565881879	-0.418767311	0.133948063
-0.423770334	-0.40305503	0.793365271
-0.128532235	0.977417313	0.376246849
-0.362681257	0.932015061	0.46446202
0.37349962	0.854014036	-0.57003433
0.163913239	0.403433117	0.182246531
0.478824869	-0.854475066	0.900860896
0.649835139	0.390429741	0.96534922
-0.79163853	0.339382418	0.635873358
-0.662865456	-0.464302639	0.056562782
0.963860772	0.601057045	0.699973908
-0.144406654	0.825494529	-0.483755626
0.484253566	-0.404726546	-0.282790079
0.857153565	-0.805074864	0.120568721
-0.889102512	-0.176118439	0.46900868
0.35464378	0.113456063	-0.357772349
0.310826849	-0.05404278	0.364404957
0.43672591	0.58089922	-0.774197882
0.04045241	0.360808994	0.005581582
-0.790481005	-0.738339373	0.597780622
0.115444077	-0.267408864	0.003637034
-0.759722109	0.245325461	0.002197029
0.309495024	0.736338984	0.302719016
-0.091139529	0.621137796	0.370888649
-0.228998144	-0.964789903	-0.036089003
-0.014301168	0.113681911	0.424063568
0.962811434	-0.972351641	-0.580983507
0.022867153	0.973148544	-0.86321837
0.190687762	-0.312624936	0.171376478
0.878720854	-0.522599728	-0.894661741
-0.622619314	0.153473245	-0.154260036
-0.662184659	0.878857325	-0.978805353
0.909505913	-0.8244063	-0.09323078
0.303972635	-0.323327971	-0.051230886
0.607190723	0.180164047	-0.65384815
-0.027923888	-0.049032297	0.274612173
-0.522078241	-0.031509031	-0.706508795
0.13950213	-0.711423571	-0.42491711
-0.537968923	0.32123679	-0.938833637
0.392603157	-0.506814545	0.98040623
0.160647634	0.069068762	0.279778395
0.800548003	-0.291606498	-0.572518022
-0.800963072	0.234389153	-0.217208789
0.512859411	0.15276176	-0.242800827
0.790125334	0.093876151	0.816499496
0.593671021	0.416330216	0.71796567
-0.393862009	0.633789249	-0.141629444
-0.890719652	0.429506337	-0.410534533
0.674190811	-0.58651728	-0.852029203
-0.669120402	0.385579169	-0.150406123
0.29942343	0.939081122	0.571589811
0.384383673	-0.546355142	-0.667393378
-0.633856494	0.23522134	0.763894713
0.302435751	-0.570469621	-0.471116124
-0.660319751	-0.201486821	-0.94095989
0.907574113	0.492091711	-0.509454153
-0.144320175	-0.967681239	-0.16165002
0.226762078	0.740339055	-0.050498641
0.675199562	0.600521982	0.025111358
-0.623258817	-0.170665417	-0.020780229
-0.745140978	0.371627711	-0.56179936
0.956757235	0.602532058	-0.663768142
-0.763687532	0.71224098	-0.409121887
-0.622343121	-0.091649561	0.873604978
0.709578745	-0.356001909	0.651615196
0.324184483	0.57143538	0.444975375
0.387991656	-0.385823684	-0.841404303
-0.062776821	-0.229432728	-0.18511623
-0.515820255	-0.174884548	-0.220842511
-0.702611748	0.013511754	-0.562555958
-0.035451763	-0.873453658	0.524538387
-0.278762432	-0.172306033	-0.255217876
0.786964592	0.538548534	-0.13599102
0.771423925	0.516646785	-0.719244109
0.655737807	0.612253284	0.400071417
0.742953208	0.903675158	0.887475472
-0.133718538	0.633538298	0.575918542
-0.696838763	-0.990327565	0.827814527
-0.733166929	-0.934430518	0.471264615
-0.159132033	-0.612306599	-0.075212926
-0.128666867	0.182207145	-0.142674115
0.910401103	0.700798812	-0.236766568
0.547610812	0.282922732	0.35854323
0.300560448	-0.638112959	0.578252824
0.381542329	0.440654281	-0.101024024
-0.276821651	-0.867835033	-0.272695151
-0.447358801	0.916736021	0.259365872
0.039626714	0.489538016	-0.597689194
0.472058053	0.237725609	0.698820838
-0.292276971	-0.117008538	-0.428649048
0.636026587	0.326058371	-0.811079567
0.183372448	0.637016104	0.602879245
0.882167265	-0.327857448	0.05187222
0.94209408	-0.285213951	0.508025244
0.432469303	-0.213880747	-0.323401368
-0.901856494	0.930120738	0.482116495
0.766399265	0.207446269	-0.986569322
-0.751374781	-0.965134968	0.079062172
-0.728283689	0.000516803	0.24315756
0.935267019	-0.211502696	0.172862451
-0.011941459	0.656311973	0.202771907
-0.166513037	0.368346833	-0.013567445
-0.029026103	0.654827131	-0.19038887
-0.255843236	-0.317498206	0.687945977
-0.977816825	-0.780630381	-0.668287154
-0.096690626	-0.689505772	0.142848274
-0.954445014	0.230467853	-0.079508918
-0.297717266	-0.901354452	-0.634016016
0.587318496	-0.459800032	-0.720362036
-0.413128463	0.311098517	-0.815021655
-0.559544698	0.572326398	0.775863105
-0.910864961	-0.732587106	0.782610264
0.514343192	0.535696442	0.811690502
-0.895075395	-0.477968499	-0.859127084
0.050770033	0.821706588	0.067297276
0.059236649	0.141051318	0.76275628
0.724177553	0.999340275	-0.571121144
-0.044965278	-0.408808287	-0.052764461
0.409511358	-0.226163517	0.540605279
-0.338877053	-0.707320971	-0.666395871
-0.867002068	-0.078184164	-0.474239601
0.888859976	0.166449681	0.207013594
-0.399017837	0.986288603	-0.158358606
-0.325289964	0.248532801	-0.263232018
0.847886298	0.435813467	0.671348194
-0.703661935	-0.44087129	0.263403914
0.835237674	-0.050883509	0.173422546
-0.748445969	0.881634111	0.627092648
-0.248381764	0.999768778	0.769924871
0.877740105	-0.449858827	-0.469790451
0.531209461	-0.22211303	0.238139971
0.151836872	0.170933621	-0.827926956
-0.65242518	0.214153476	-0.52168983
-0.324787711	0.131555375	0.485413566
-0.375803921	-0.295477594	0.158662518
-0.890312362	-0.096120207	-0.266951086
-0.47251286	0.671628913	-0.553691669
0.543378458	-0.254357828	-0.787985646
0.803232159	-0.09256462	-0.702359879
0.34897191	-0.578365748	0.122539058
0.082846506	-0.272757447	0.887825487
-0.214819353	0.785119058	0.42795616
0.361949265	0.73193728	0.568324418
-0.708793155	-0.230820202	-0.211755909
-0.007138051	-0.537914971	0.886870901
0.463441319	-0.729161201	-0.586151072
0.693035337	0.617894607	0.685433435
-0.127983171	-0.824386501	0.317428627
0.206053916	0.959381994	0.005613361
-0.307141084	-0.906697308	0.993279004
-0.625063126	0.232992558	-0.331240078
-0.567068465	0.866690944	0.809950326
-0.60699026	-0.979764182	-0.422238399
-0.448185685	-0.208913928	0.713059096
0.506951369	0.708503951	-0.534397638
0.385450759	0.413603352	0.291811628
-0.737159929	-0.43194619	-0.529860029
-0.504375541	-0.079849458	-0.501800209
0.672212837	-0.065790429	0.309444042
0.46942997	0.225407343	0.197449486
0.965678022	0.012476105	-0.151618307
0.22281702	0.790759603	-0.462384133
0.053412031	0.51704651	0.523885662
-0.834432993	0.301187576	0.236860896
-0.681428344	-0.330619739	0.460256607
-0.044379268	-0.407878025	0.754956955
-0.507397267	0.036880178	0.50789549
0.468673655	0.571592922	-0.257720448
0.492133359	-0.608221676	0.471044494
0.785703124	-0.759832417	0.545710265
-0.964172603	-0.772895402	-0.277915607
0.035000838	-0.258606233	0.479258534
-0.639951422	-0.734248794	-0.971580901
-0.82552352	0.226909367	0.455538263
-0.235139529	-0.508063498	0.803386307
-0.00703036	-0.271606852	-0.891969807
0.157649596	0.510377627	-0.08362856
0.455602538	0.605554774	0.256768124
0.951205784	-0.329967014	-0.828654563
0.904533578	0.84379289	0.105006134
-0.983269282	0.339801375	0.100605703
-0.370536442	0.099156782	0.283057576
0.707155509	-0.877578179	0.384134066
0.203532606	0.978040269	-0.972790751
-0.946478106	-0.622979229	0.982933409
-0.063303838	-0.805375382	-0.1450685
0.812169209	0.630752744	0.542001096
-0.66643462	0.557274974	0.381095087
-0.256816631	-0.469930527	-0.146112677
-0.887307182	-0.487111457	-0.122784564
0.244481607	-0.884246142	-0.303783556
-0.87828528	0.360709929	-0.889840725
-0.806875851	0.881407131	-0.666248652
0.768013576	0.376348318	0.007187456
0.861117573	0.981275257	0.48311372
0.69814485	0.315127932	0.759801305
0.551722463	-0.845306086	0.125200658
0.722011703	-0.258849688	0.17403334
0.821116159	-0.791492867	-0.316573813
-0.175822942	-0.78909933	0.683310364
0.474754512	-0.020484661	0.232789266
-0.766163093	-0.336454878	-0.056912924
0.398213368	0.860776043	0.005834316
-0.84816136	0.169179374	-0.572967173
0.795471725	-0.076204069	-0.196195372
-0.93698386	0.807759727	-0.832984143
0.187547102	0.188234545	-0.272834874
-0.053536347	0.509299227	-0.3519044
-0.871954604	0.01677762	0.444470717
0.424782478	0.860002475	0.427800951
-0.195614206	-0.158614789	0.25289915
-0.41160572	0.011559455	0.994724319
0.010602302	-0.25580081	0.301813502
0.881938871	0.895400661	-0.11814987
-0.048070314	-0.427951422	-0.231354417
0.648512295	-0.649606251	0.627847195
0.199795789	0.557486185	0.779080415
-0.13073839	0.81866464	-0.878129011
-0.037066082	0.141775248	0.207621772
0.166761159	-0.453428698	0.970562676
0.976165037	-0.909254185	0.77897435
0.787888773	-0.250251551	0.338497976
-0.494921247	0.585382453	0.571267514
0.800414361	0.489110007	-0.96135622
-0.268383037	0.091546748	0.859607205
0.01459166	0.963824003	-0.498047623
0.430888084	-0.211469462	-0.52730294
0.688325479	-0.988823561	-0.775242978
0.369398363	-0.783581113	0.211080981
0.840083438	0.596750517	0.299741555
0.595610317	0.6231775	0.959769485
0.611180682	-0.172153017	-0.625728509
-0.237179727	0.211199137	-0.735027312
-0.780259153	-0.943593841	-0.139962877
-0.099186834	-0.207783061	-0.367680461
0.138052714	0.589523732	0.346262794
0.002280033	-0.3852288	0.14345829
-0.68344634	0.520253425	0.593593594
0.380007142	-0.924604642	0.399369902
-0.576356874	0.878876416	-0.193063339
0.458675883	-0.938061482	0.704342732
0.868418392	0.913455073	-0.722076049
-0.520138521	0.220323923	0.381150948
0.615515706	0.77532783	0.78983118
-0.20122477	0.453158514	0.285128533
-0.989986035	-0.354462338	-0.628962082
-0.801668759	0.131093214	0.652750941
-0.31543142	0.636264597	-0.969209991
-0.685587654	0.537198253	0.010493005
0.814705581	-0.998341141	-0.400562782
-0.813937669	-0.640768831	0.228899291
-0.238563948	0.23729449	-0.937730559
0.920485071	0.635078718	0.942057311
-0.145963337	0.264670897	0.36355884
0.595118174	-0.228510527	0.435486927
0.344132157	0.165535116	0.882370203
-0.770817939	0.782758755	0.82696742
-0.666368506	-0.790426559	-0.036492715
0.608850784	0.658871608	-0.69258746
-0.717111492	0.563199208	-0.273148615
-0.904740052	-0.011408941	-0.663884106
-0.964282204	-0.792286235	0.273302268
-0.543451926	-0.267670279	0.310625254
-0.001900661	0.535119447	0.72480263
-0.888072973	-0.133087097	0.255912814
0.616541215	0.105553996	-0.870709399
-0.287454896	0.869691174	0.961869575
-0.916678746	-0.463647934	-0.444027577
0.283377327	-0.58227432	-0.896121197
-0.898286341	0.878609839	0.120866835
-0.856210999	-0.366671923	0.58508936
-0.512774983	-0.871610246	-0.651785395
0.472351783	-0.183168873	-0.11102611
-0.993789531	0.57502611	-0.119920875
0.247543708	0.236864431	0.788845481
0.926199155	-0.405979459	0.259620711
-0.86892609	-0.897266701	0.885180929
-0.410692429	0.803647934	-0.236893988
-0.216231858	0.554702257	-0.080178967
0.045431335	-0.582004773	0.528794852
0.015927862	0.217488094	-0.341105199
0.370012127	-0.252758861	0.101896304
0.780433099	-0.105446587	0.844777882
-0.604102176	0.646516643	0.155013948
0.478267249	0.667422016	0.433675122
-0.699718927	0.069177953	0.427811699
0.05723322	-0.907309657	-0.645622443
0.162713995	-0.604224929	0.432847602
0.03918158	-0.924996376	0.359214552
0.382400467	-0.414605243	0.801286924
0.949933709	-0.389202072	-0.141691103
-0.57101515	-0.335393873	-0.099322173
-0.997914052	-0.540851986	-0.589453941
0.937890364	-0.944665806	-0.262966572
0.522899114	-0.51264629	0.296837844
0.460134915	-0.106492956	-0.715430713
-0.706698863	0.872660291	-0.510494511
-0.159427036	0.514575969	-0.941970337
0.141820432	-0.728609663	0.571257685
0.788054942	-0.949236508	0.789348937
-0.4944436	0.366400891	0.236167088
0.236970072	-0.742089837	0.725166787
-0.760415068	0.564206756	-0.813509166
0.755304142	-0.235302657	0.529108381
-0.163889339	-0.63552702	0.323948452
-0.875219997	-0.304573742	-0.782758048
-0.868505365	-0.639254857	-0.753698315
-0.802523644	-0.78745037	0.114811505
-0.608565539	0.480906574	0.955835882
-0.466996836	-0.745694638	0.416838339
-0.278804858	-0.67702268	0.589483074
-0.136502466	-0.079352225	0.431560466
-0.637537521	0.299267373	0.173981792
0.351601266	-0.984489031	0.918348212
0.777395393	-0.12639884	-0.998066079
-0.844084216	-0.902167618	-0.641282823
0.127868055	-0.149897435	-0.812676908
0.528466899	0.810920469	0.97360321
-0.651517474	-0.285581432	-0.426800686
-0.345523449	-0.455780162	0.218697449
0.047963924	-0.763121851	0.266022026
-0.620795418	0.367363892	0.029608054
-0.220047093	0.721711892	-0.145142322
0.053200071	0.999391186	0.611003836
0.818658983	-0.275444219	-0.153050186
-0.068285952	-0.691910127	0.462184942
0.994635224	-0.25900426	0.337771005
-0.794903216	-0.038158207	0.789461366
-0.891351093	-0.9435599	-0.307108346
0.664925171	-0.625299086	-0.664895614
-0.867528151	0.528809419	0.651472998
0.438009016	0.836127207	0.197096007
-0.469940215	0.185252912	0.642443105
0.097448072	0.501786703	-0.246945995
-0.977034065	-0.666130142	-0.109893334
-0.901532642	0.491434248	-0.736981032
-0.836977143	0.407888985	-0.041779865
0.54377592	0.910637275	-0.852937121
0.831560749	-0.882071099	-0.68125963
0.249393767	0.629006841	-0.82811151
0.488568721	-0.567931199	0.652489809
-0.422115788	-0.559388075	0.453884071
0.15024144	-0.123623469	0.326382082
0.797583129	0.910829606	-0.898277855
0.587853064	0.53750563	-0.492147006
-0.443082607	-0.672579257	0.574747724
0.152111015	0.158485814	0.588479132
-0.789059025	0.463634712	0.286058159
0.390757623	0.035324627	-0.010092362
-0.439303859	0.97502519	0.880050204
0.545015185	-0.695371387	-0.751910764
-0.702703601	-0.171889763	-0.52282296
-0.195830296	-0.601089218	0.476308013
-0.255578356	0.30720635	0.140874543
0.223170146	0.011057887	-0.249551238
0.277687072	0.311713341	-0.843778041
0.710708692	0.085118351	0.151276141
-0.149847655	0.567239725	-0.682349909
0.654554685	-0.120087681	-0.0876077
-0.47760116	0.782246814	-0.705694992
-0.846140466	0.609638141	0.361979529
0.698601849	0.025574636	0.973760894
-0.591912673	-0.967044848	-0.049354219
0.417499054	0.39906203	-0.776966183
0.785857979	0.073344341	0.336696848
-0.197555905	0.944473475	-0.612735739
-0.896585055	-0.24828185	0.089422617
0.672629249	-0.868773356	-0.422193993
0.374252965	-0.051981276	0.908315155
0.447890611	0.722995987	0.869763298
-0.623052767	-0.654084817	-0.412721597
0.031453489	0.719920098	0.638842193
0.37763305	-0.79671693	0.536045396
-0.708183634	0.60312871	0.890562676
0.129632131	0.647072354	-0.540040588
0.094510492	0.448408209	0.886699075
0.509639555	-0.614638548	0.029818961
0.83182874	-0.539663278	0.327010483
0.814343545	-0.787907158	0.733445527
0.672918878	-0.56524174	0.310122788
0.621416748	-0.011261185	-0.732121834
-0.522256501	0.481794693	0.11083194
0.228092135	0.458009369	0.578797221
-0.758119111	0.41467659	-0.745536248
-0.144186958	0.379698351	0.96124874
0.077432728	-0.758654387	0.419724089
-0.340665948	0.271523697	-0.462042532
0.483654935	0.991760151	0.540557196
-0.696969082	-0.585339179	0.368682989
-0.617190687	-0.300862734	-0.58889915
-0.305009599	0.640745285	0.0260591
0.148822146	0.181052379	-0.458005692
-0.476200251	0.515853772	-0.833614877
0.144601389	-0.084193251	-0.53984564
0.785063904	-0.332438756	-0.32389839
0.735938058	-0.447358447	0.058804603
-0.019178596	0.815218936	0.339630045
0.246663013	0.809048065	-0.929168979
0.704379501	-0.566488359	0.471401368
-0.952402906	-0.94898478	-0.966530078
-0.994819071	-0.811668582	0.968452686
0.317006134	0.918246389	0.290659054
-0.322388305	0.791455391	-0.864957839
0.621966236	0.113299935	0.290118828
0.835417278	0.348437625	0.904005374
0.347553254	0.294055119	-0.281152999
-0.183984302	-0.373711255	-0.915893157
-0.168627623	-0.509807845	0.976681221
0.485970337	-0.077362372	0.424400148
0.210477753	-0.541736004	-0.735357528
0.938506956	0.389635383	-0.678099737
0.092136683	-0.749814916	-0.620455161
-0.281459952	0.71127013	0.854043734
0.778048048	-0.100473687	0.463679047
-0.637833442	0.783532323	-0.631959978
0.555044211	-0.689259559	0.853046015
-0.56880454	-0.531104951	-0.838939348
0.506462904	-0.650718309	0.210315473
-0.568726971	-0.460723718	0.421618908
-0.552422139	-0.796273577	-0.388258092
-0.58874981	0.884309074	-0.004079932
-0.483492443	-0.838061129	-0.977858544
-0.452070781	-0.8820513	-0.296989659
0.25160664	0.842928105	0.146012056
0.564762821	0.447862964	0.249791228
-0.908547084	-0.490405346	0.283501211
-0.789063268	-0.663244321	-0.890218317
-0.079127437	-0.513115169	0.259144761
0.868817197	0.692473828	-0.031925196
-0.379561597	-0.618673478	-0.815312981
-0.004663158	-0.804830914	0.778056533
-0.723857236	0.155610812	0.153414061
0.191455956	-0.176020859	-0.672368046
-0.048650887	-0.684536831	-0.380702222
-0.55638134	0.147760151	0.205081016
0.512368046	0.003005778	-0.59445859
0.592574449	0.647721049	-0.379121286
-0.525965458	-0.497951245	0.589856423
-0.313528682	-0.250742067	0.839840195
-0.738113808	-0.96480263	-0.738982835
0.929923456	-0.203326416	-0.261264933
0.870508582	0.27386611	0.755701533
-0.870514946	-0.805808128	-0.506833566
0.149610281	-0.008971649	-0.696091852
0.490387173	0.344436635	-0.232652654
0.47093949	0.392188867	-0.924267355
-0.792988386	0.417920204	0.11240227
0.919346639	-0.54247252	-0.084889533
-0.834580777	0.959249766	0.981490923
-0.958673478	-0.631961463	0.393131079
-0.677754954	-0.511846206	-0.374069826
-0.109464618	-0.360577631	0.586498966
0.706957733	-0.922455762	0.572668423
-0.252695717	-0.349887253	0.486821757
-0.049138645	0.359492089	0.644296063
0.097509237	-0.095756899	0.968872704
-0.304245788	-0.341964327	-0.588726334
-0.992146228	0.459498029	0.58424791
-0.178240096	0.634842758	-0.832456646
-0.067573455	-0.188454666	-0.01616904
0.671767576	0.826200923	-0.963348124
-0.737368523	0.870382718	0.433596705
0.778060775	-0.11089664	-0.505881101
-0.520904877	-0.444160229	0.211801729
-0.73600099	0.228734819	-0.700329226
-0.649489862	-0.109566582	-0.372189998
-0.370971734	0.751328113	0.313244427
-0.304261486	-0.664803408	0.036376984
0.978024006	-0.603698421	0.241075996
0.176659937	0.896848097	-0.787462391
-0.913551945	0.513355725	0.047039842
-0.14806767	0.665896445	-0.382645265
-0.419224027	-0.420633633	0.354352525
-0.1543142	0.996648341	-0.767306475
-0.440157189	0.499456239	-0.661804168
0.964478778	0.094599233	0.03036567
0.433303258	-0.203278121	0.865261185
-0.467469321	0.321282257	-0.359743181
0.325805865	-0.200843289	-0.879535435
-0.728845127	-0.904950768	0.990803444
0.548688504	-0.162698298	0.756443989
-0.849444749	-0.281934982	-0.508939525
-0.21756538	0.131773233	0.07124022
-0.062748382	-0.949919567	0.707585427
0.498425357	0.275476957	-0.390564231
-0.258460358	-0.586078877	0.195621065
0.071154024	-0.232053033	-0.48770224
-0.219840549	0.183517262	0.222786402
-0.702390355	0.748436069	-0.220680019
0.130073291	-0.821125351	-0.038945592
-0.576853683	-0.966433913	0.97359119
0.61733034	-0.38143591	0.333381181
-0.728796337	0.160420796	-0.921706942
-0.612889321	0.982684509	0.653769945
0.534051229	0.576921706	-0.075905178
0.146824869	-0.910834556	0.117191324
-0.188083791	0.057473613	0.360993406
-0.113539854	0.029485768	0.723216603
0.457857908	0.560504587	0.07645502
-0.788590217	-0.213446446	-0.374656367
0.154763563	0.042820315	0.474562251
0.742530361	-0.439281656	0.230034966
-0.014851661	-0.613763227	-0.231724796
0.457367816	-0.564786862	0.814265057
0.638584525	-0.57854415	0.150174406
0.439701391	0.208518305	0.516797681
-0.625206385	-0.735584507	0.325155332
0.558671004	0.77726458	-0.265135321
-0.726147537	0.381526066	-0.340999841
-0.940751295	-0.19172911	0.647816649
0.032365812	0.10686885	-0.015786929
0.22735279	-0.479405611	0.262383072
-0.13191133	-0.003769909	-0.389065955
0.295538617	0.091673036	-0.706985805
-0.831856317	0.249487387	-0.406676236
0.368015556	-0.031817872	0.548990083
0.197020135	0.348208453	-0.174431155
0.721303894	-0.746575686	-0.147924623
0.670563595	-0.730243066	0.215396843
0.073410172	-0.766019551	0.10540607
-0.379609397	0.498147749	0.286168608
0.782134385	0.35397458	-0.228732132
-0.908029486	-0.045790627	0.923387721
0.120923686	0.858356344	0.579995757
-0.489085966	0.620868179	0.386193074
0.206199296	0.255630823	-0.992253708
-0.689930527	-0.020101603	0.56076176
0.565694568	-0.890999664	-0.924385441
-0.129487953	-0.812582863	-0.970831374
-0.408887412	-0.769489296	-0.846516643
-0.655872227	0.718942177	0.691821316
0.804185331	-0.431456664	-0.08405572
0.990765967	0.77812795	-0.664216444
-0.059566802	0.953387191	0.197282893
0.346664003	0.592503739	0.87488271
-0.804240485	-0.406647386	0.747948877
0.112660008	-0.854770634	0.678222489
0.162533826	0.655857095	-0.260075023
-0.64688179	-0.865575138	0.654446075
-0.246271138	0.391930492	-0.5291431
0.851735049	-0.909184889	0.637013134
-0.308174795	0.395574608	0.986519118
-0.941423041	0.977294985	-0.026443692
-0.464626916	-0.712326539	0.044838898
-0.361904789	-0.409991197	-0.416665877
0.779038696	0.05122035	0.509250508
-0.827322385	0.252250526	0.803633085
-0.944054871	0.414543584	0.743417066
0.938966572	0.465081652	0.845907829
0.354397143	0.253948629	0.387318496
-0.796577631	-0.176204494	0.934462338
0.676788771	-0.096835511	-0.861843766
-0.348910534	0.343683997	-0.637897223
-0.46763061	-0.534098322	-0.68237395
-0.27438689	0.853456133	-0.080705404
0.186303594	0.685731549	0.138358748
0.388746911	0.407143559	-0.616906433
-0.592126642	0.507487422	-0.564944333
0.873129806	0.231548233	0.042139921
-0.132543478	0.784131945	-0.280788842
0.625103926	-0.023115487	0.489326239
0.72415634	0.459147873	-0.509157949
0.929334441	-0.444424614	0.615269918
0.588383744	0.97790097	-0.079519949
0.999477452	0.957383019	-0.402355142
-0.113151797	-0.044562654	-0.239780657
-0.831239018	-0.515136347	0.422937439
-0.448792519	0.780540579	0.940894836
-0.333253407	0.435717867	-0.083730807
-0.751756616	-0.327957998	-0.687278757
0.124866128	0.766170164	0.267417632
0.722543443	-0.524828793	-0.555201895
-0.287853064	0.102126677	0.667776556
0.358591172	0.584241192	0.681279853
-0.482153971	-0.652454171	-0.940759073
0.722052007	-0.41303456	-0.853471689
-0.284110166	0.69281451	-0.292229808
0.154467217	-0.904665806	0.848007212
0.087239513	0.529787764	-0.837385847
0.085080238	-0.056336191	0.806408457
0.085233326	-0.444245364	-0.696668564
0.267146034	-0.878766816	-0.120141986
0.820677756	0.669106047	0.132913716
-0.863890116	0.847869328	-0.427508494
-0.8813343	0.568835581	-0.546190387
0.047504619	-0.41954689	0.594156941
0.375717372	0.266281532	-0.967428097
0.083701533	-0.51474836	-0.869485407
0.18567187	0.201727377	0.420589864
-0.003333587	-0.092605632	-0.681032368
0.459746646	0.051777164	-0.747539465
0.681663526	0.87156287	-0.196332125
0.730631972	0.923582174	-0.03841731
-0.030278541	-0.365788683	-0.440710849
0.843452774	-0.676438898	-0.02800314
0.451365942	-0.101994591	0.071360215
-0.408420372	0.255300606	0.779705492
-0.838059715	0.856206756	0.297902314
-0.576224929	-0.625708003	0.480193604
-0.456701091	-0.354916297	-0.616379713
-0.952525942	0.084233343	0.590353586
-0.760690838	0.107892521	0.849487175
0.962160901	0.276510103	-0.812808429
-0.764975163	0.613461366	0.735865934
0.648674504	-0.690141668	0.998273259
-0.585642313	0.051575944	-0.384874896
0.127503827	-0.385390656	-0.533842988
-0.236690413	0.374603122	-0.378195549
-0.424982588	-0.905511499	0.187588043
0.051468896	-0.887650126	-0.343661864
-0.435943573	0.799608266	-0.057753073
0.69558974	0.086504481	-0.199936149
0.184256748	0.012294133	-0.409581785
0.394847567	-0.209669253	0.354973643
-0.522888225	0.083557072	-0.56607025
0.517234245	-0.259653733	0.048069911
-0.218645265	-0.302519825	-0.124115965
0.458288108	-0.25278566	-0.964930616
0.187671057	-0.640391805	-0.096792802
0.493140625	0.912786862	0.823585356
0.30092107	0.770561261	-0.774226873
-0.046944581	0.50361866	-0.093279994
0.303000088	0.616879775	-0.178630628
-0.443539182	0.474197599	-0.982128021
-0.860133996	-0.195167601	-0.645250862
-0.657926638	0.358729127	0.329631494
-0.193059237	-0.652643179	-0.780544114
0.014214619	-0.970472167	0.869802188
0.626170305	0.320040234	-0.495409571
0.523483958	-0.085365695	0.605818098
-0.081286924	0.205339957	0.03072736
0.887979635	-0.129869222	-0.874767452
-0.487186692	0.615842175	0.95417773
-0.852368612	-0.465978822	0.968998568
-0.033152016	-0.468062861	-0.572167937
0.39373063	-0.730807333	0.387438137
0.029127466	-0.070917216	0.443691492
0.41151408	0.757112906	-0.185200728
-0.842096555	-0.313123584	-0.949708851
-0.527787021	-0.015608867	-0.084335661
0.062728137	0.701757924	0.805873889
0.091747353	0.281506337	0.893530379
-0.953155969	-0.312341176	-0.035914278
0.125488518	-0.434007389	0.446377981
-0.892025668	-0.330931146	0.221793986
0.870849405	-0.65472241	-0.206848698
-0.157768813	-0.009752508	-0.544074882
0.748747901	0.734620729	-0.137180576
-0.486380668	-0.812171331	0.671317365
-0.154066574	-0.244521628	0.410856052
-0.004893587	-0.723040535	0.622377132
-0.423364175	-0.918394881	-0.819399318
0.28090318	-0.500962223	0.437219537
0.899038696	-0.580162987	0.893132281
0.998859446	0.793091623	-0.367669784
0.364115399	-0.917684951	-0.625673567
0.488595591	0.691037777	0.699958635
-0.745102795	0.731438774	0.323425551
0.311994838	-0.734619314	-0.07541551
-0.474386254	0.167550425	-0.441746752
-0.017094359	-0.720643462	0.910350899
-0.2486074	0.538065725	-0.388964344
0.241803249	0.0886482	-0.541604483
0.633127402	-0.529234103	-0.029592547
-0.89887677	-0.308614047	0.874165709
0.0440886	0.931530697	0.450700631
0.204498931	0.805477205	0.704170765
0.316212555	0.472245647	-0.899811558
-0.027999646	0.618982694	-0.916905019
0.711077799	-0.891488271	0.200502395
-0.467001715	0.134052007	-0.278935601
0.187820538	-0.503871378	0.588895685
0.969245346	-0.367954038	-0.306394598
-0.141162828	-0.59657452	-0.502369001
0.456814156	0.774090403	-0.747744524
0.157288338	0.399412258	-0.922706076
-0.867852711	0.754258339	0.460483799
-0.951424985	-0.896226555	0.090281532
0.755960332	-0.15841871	-0.353832523
-0.259443582	-0.777637929	-0.094964097
-0.893272994	0.310755149	-0.695120083
0.438710248	0.517739327	0.988433241
-0.875754565	0.662902862	-0.717312309
0.425137796	-0.753011013	0.031492259
-0.577076844	0.582230975	-0.39374661
-0.053112058	0.65216532	-0.519618802
-0.651840549	0.652902261	-0.532087963
0.99582669	-0.164345348	-0.752571903
0.023996712	0.601724761	0.924987891
-0.947349255	-0.151424349	0.806117838
0.540064841	0.247569305	-0.94948965
0.718682671	0.735498241	-0.313580159
0.474377627	0.277689264	-0.564202726
0.66769036	0.236429705	-0.347784193
-0.825976065	-0.766447347	0.968727748
-0.04262041	-0.20097481	0.138806767
0.043648946	0.789003871	-0.553959165
0.261277873	0.279743605	0.568690343
0.956352773	0.931933745	-0.924667574
-0.950480298	0.873061924	-0.554216196
0.899288303	0.66823398	-0.430126253
-0.55494748	-0.009446771	0.149213739
-0.369957397	0.844230586	0.794136011
-0.979064152	0.255149287	0.763761778
-0.348859693	-0.844491506	0.039340897
-0.173012498	-0.420450706	-0.479934805
0.303793809	-0.874529159	0.808823914
-0.797837685	0.719135923	-0.588895968
0.182235571	0.007609383	0.66829479
-0.757696972	0.675497534	-0.967756192
0.278243773	0.76814934	-0.273067864
0.749752691	-0.587833124	-0.118737612
-0.631207552	-0.83024342	0.167757252
-0.599924623	0.411586982	-0.43712521
-0.617194435	-0.13699277	0.674053351
0.723662076	0.007466966	-0.392415705
-0.957239477	0.709136806	-0.51639237
0.52265573	0.715806184	0.104996871
0.118206438	0.22242571	0.114688115
0.200853117	0.927643762	0.855351871
0.885311036	0.016133479	-0.578150931
0.21488971	-0.683975534	0.057767031
0.119265181	0.222865598	-0.088392441
-0.931150984	0.415006452	-0.585653273
0.315096113	-0.16478962	0.215092436
-0.268130602	-0.290164507	-0.443173752
-0.502026905	-0.203434178	-0.652514699
-0.770065584	-0.131199562	0.102169527
-0.638771129	0.450588414	-0.861299298
-0.306249783	0.268152168	0.657791299
-0.46443317	-0.555510615	0.727332638
-0.619851792	-0.157113189	0.177772773
0.343345861	0.755868408	0.753105058
-0.099175025	-0.927435168	-0.624253849
0.931187046	-0.973328855	0.162008662
-0.745042691	-0.261821209	0.279748767
-0.096315721	-0.013493284	-0.087911824
0.118533614	0.567414025	-0.400050063
0.279527162	-0.841774824	0.050310099
0.027597087	0.060795354	-0.400021708
0.901312026	-0.746675388	0.8600548
-0.522536937	-0.870538281	0.060303417
-0.319446976	0.947923421	-0.503525747
-0.21281656	-0.134194417	-0.097717478
0.858089059	0.772844491	0.266148173
-0.08211897	-0.520052608	-0.377922466
0.848851491	-0.477184748	-0.253243932
0.557848221	0.738482915	-0.873296682
0.134034118	0.057543976	0.09494253
0.911371246	-0.225363008	0.859470735
0.888628754	0.763064576	-0.823460199
-0.018371136	-0.42785865	-0.973639272
0.954056816	0.305157666	-0.976552529
-0.271735261	0.312023405	0.8511227
-0.380568439	-0.083400661	-0.097684951
0.598426347	-0.229764571	0.618356556
-0.505343068	0.791125175	0.120806166
-0.732307094	-0.290628931	0.12047793
-0.950767381	-0.244688434	-0.38701119
0.739211229	0.710587778	0.923572982
0.305804734	-0.006954858	0.152861956
-0.338043663	0.805579734	-0.602588202
-0.782785625	-0.556581237	-0.251299616
-0.014338984	0.141318178	0.597930952
0.010025074	-0.636723859	-0.52932836
0.998745603	0.464486698	0.997424031
-0.727331224	-0.787941098	0.81252771
-0.999111174	-0.875033322	-0.423482048
0.445239972	-0.768847248	-0.154924994
0.34782471	0.118359313	0.285952447
0.550943874	-0.564157825	-0.55362612
0.433996783	-0.354279128	-0.658902721
-0.95230674	-0.916622885	-0.1489012
0.137161696	0.614404992	-0.702382718
0.558475137	-0.438521664	-0.914722905
0.627534798	0.601485336	0.212821439
0.118385052	0.149255104	-0.632282345
-0.677582563	0.370693348	0.481558239
-0.425334724	0.633669324	-0.36046103
0.009789157	0.064329445	-0.758817727
-0.408754123	-0.474977885	-0.881825028
0.524289558	-0.791546607	-0.415311213
0.224799095	-0.8454369	-0.614230126
0.868986194	0.9339009	0.708831339
0.398263925	0.880875391	-0.922684156
-0.994973926	-0.454450317	0.436950344
-0.054504835	-0.17436094	0.961526631
0.351038555	0.699289222	0.11148622
0.987378953	-0.556329226	-0.746122435
0.899713978	0.607939826	-0.847625378
0.610823879	-0.981803461	0.849511216
-0.848548145	-0.466642295	-0.681144443
0.575515989	-0.079184783	-0.466234227
-0.603607347	-0.273991197	-0.771125528
-0.458442115	-0.457850766	-0.154692994
-0.482989623	-0.389118139	-0.765887323
-0.610848627	0.726476339	0.934586081
-0.717890718	-0.375518747	-0.846910499
-0.408533225	0.247144549	0.165790026
0.611055454	-0.774651134	-0.278009086
-0.006046387	0.098076119	-0.933884636
-0.106932702	0.354709116	-0.873227386
0.578349273	-0.877207658	-0.16215185
-0.13565642	0.512556489	-0.52583316
-0.160318337	0.035149046	0.552461666
0.704617582	0.818231894	-0.622769291
-0.085157171	-0.652013859	0.770967137
-0.159706412	-0.37907094	-0.644375329
0.23751751	-0.154144991	0.8776998
-0.834735633	0.026665142	0.089700295
0.3649012	0.855477028	0.920847107
0.931435238	0.019184005	-0.761462285
-0.860713819	0.943606569	0.824329933
0.243475897	0.009387332	0.819099507
-0.194401386	-0.801009033	0.490756633
-0.414555322	0.206233874	-0.614391557
0.243624741	-0.753091623	0.434857183
-0.881484912	-0.813268751	-0.035245064
-0.544000566	0.686554756	-0.25419166
0.821393343	-0.147477664	-0.006238527
-0.503104386	0.31710435	-0.530306139
-0.452133076	0.343372165	0.049001213
0.061676112	0.66617073	-0.03523561
-0.574166628	0.986450529	0.138197034
0.237331401	-0.250925348	-0.540845551
0.777899556	-0.523810921	0.624898301
-0.709353886	-0.516638017	-0.938139264
0.01583101	-0.616274497	0.341736287
0.336687514	0.924694444	0.762483339
